ply
format ascii 1.0
element vertex 1252
property float x
property float y
property float z
property uchar red
property uchar green
property uchar blue
end_header
62.8073 -2.03838 19.3844  255 255 255
62.8072 -2.02337 19.3717  255 255 255
59.9435 -1.55466 13.0077  255 255 255
-105.482 4.84264 -30.8397  255 255 255
59.2154 -1.58016 11.2229  255 255 255
59.2154 -1.58016 11.2229  255 255 255
46.7669 0.546906 -16.2534  255 255 255
62.9194 -2.41833 19.504  255 255 255
60.3551 -2.02953 13.593  255 255 255
-20.307 -0.576363 5.36354  255 255 255
56.1179 -1.39812 4.38795  255 255 255
62.5033 -2.59653 18.6202  255 255 255
63.2749 -2.81785 18.9192  255 255 255
52.0807 -1.14853 -4.47327  255 255 255
62.5105 -2.95468 18.3323  255 255 255
59.6013 -2.4572 11.2809  255 255 255
59.4857 -2.52531 11.4718  255 255 255
61.2086 -2.79428 11.5645  255 255 255
59.0422 -2.62058 10.1081  255 255 255
59.0874 -2.62451 10.0707  255 255 255
-44.731 1.40507 -31.2212  255 255 255
61.412 -3.12412 15.178  255 255 255
62.1547 -3.37409 17.7615  255 255 255
59.7909 -3.0429 11.4536  255 255 255
-23.0219 -1.88376 6.97569  255 255 255
62.1432 -3.53223 16.8317  255 255 255
54.106 -2.41672 -0.973854  255 255 255
61.862 -3.67486 15.7759  255 255 255
61.776 -3.70466 15.9059  255 255 255
61.9401 -3.83647 17.0398  255 255 255
60.5769 -3.6078 12.8036  255 255 255
60.5737 -3.6089 12.8097  255 255 255
63.1498 -4.03978 18.8685  255 255 255
63.1498 -4.03978 18.8685  255 255 255
-71.029 0.654642 -26.6004  255 255 255
-22.7819 -2.64582 7.82729  255 255 255
54.3336 -3.0361 -0.69504  255 255 255
42.0576 -0.985503 -34.4262  255 255 255
54.5948 -3.2167 -0.341453  255 255 255
65.3082 -4.84047 23.4805  255 255 255
60.1509 -4.19462 11.6006  255 255 255
-47.4068 -0.420858 -28.5153  255 255 255
54.5056 -3.47378 -0.665332  255 255 255
-10.9436 -4.63522 29.2372  255 255 255
51.3528 -3.1196 -7.88693  255 255 255
63.0169 -4.8178 18.3265  255 255 255
62.4126 -4.87856 16.7671  255 255 255
54.8351 -4.06231 -0.425898  255 255 255
63.1462 -5.23407 18.0677  255 255 255
63.1259 -5.22188 18.0892  255 255 255
-5.59606 -5.43686 32.0789  255 255 255
65.2617 -5.56505 22.1044  255 255 255
55.1205 -4.34958 0.107401  255 255 255
61.2175 -5.29962 13.3509  255 255 255
54.886 -4.73399 -0.779913  255 255 255
62.5099 -5.84318 15.9523  255 255 255
49.7421 -4.49737 -12.6288  255 255 255
-19.6253 -4.99768 15.0741  255 255 255
62.4532 -6.00255 15.6098  255 255 255
-67.2591 -2.19362 -26.1576  255 255 255
47.2258 -4.84965 -17.8623  255 255 255
64.7082 -6.69135 20.7581  255 255 255
-19.8029 -5.54009 15.8124  255 255 255
59.2709 -6.27167 8.0984  255 255 255
60.3356 -6.37363 10.8121  255 255 255
62.3453 -6.90311 14.7447  255 255 255
62.2743 -6.92028 14.8467  255 255 255
5.79569 -7.15275 32.3229  255 255 255
48.0303 -5.90988 -17.2531  255 255 255
55.3127 -6.70661 -0.940098  255 255 255
59.4454 -7.19017 7.70702  255 255 255
64.6376 -8.00826 20.0251  255 255 255
57.6741 -7.44154 3.79461  255 255 255
58.8919 -7.55202 6.46817  255 255 255
66.358 -8.3042 22.9823  255 255 255
-24.7043 -6.82375 13.2264  255 255 255
2.08595 -7.98907 33.9646  255 255 255
60.6833 -7.82718 10.2768  255 255 255
60.687 -7.83478 10.2884  255 255 255
-17.1795 -7.60711 26.0028  255 255 255
62.6422 -8.07715 13.5375  255 255 255
66.2768 -8.72629 22.8097  255 255 255
-3.6945 -8.34452 34.2615  255 255 255
58.8216 -8.23487 5.33986  255 255 255
-2.2299 -8.40662 34.3048  255 255 255
1.80116 -8.63007 34.3977  255 255 255
56.8373 -8.43725 1.09837  255 255 255
-46.8176 -6.33211 -23.3244  255 255 255
-70.3557 -5.95777 -22.2932  255 255 255
62.8403 -9.01692 14.9232  255 255 255
-14.3127 -8.60076 29.5395  255 255 255
-1.99967 -9.02969 34.7254  255 255 255
-2.00738 -9.02872 34.8139  255 255 255
-8.09804 -9.13655 33.5173  255 255 255
9.23106 -9.38514 31.6406  255 255 255
46.3508 -8.64281 -22.4448  255 255 255
-56.4312 -7.54988 -20.5672  255 255 255
61.5926 -9.90313 11.0857  255 255 255
4.06617 -9.8945 34.3331  255 255 255
48.6311 -9.4544 -18.2351  255 255 255
2.70924 -9.98668 34.5324  255 255 255
46.6931 -9.9266 -23.7581  255 255 255
56.7951 -10.5029 -0.508215  255 255 255
59.454 -10.6682 6.45594  255 255 255
24.0963 -10.4021 12.83  255 255 255
60.1261 -10.7427 8.24512  255 255 255
58.4921 -10.7654 3.2543  255 255 255
58.6727 -10.7868 3.72158  255 255 255
47.5756 -10.4005 -24.0819  255 255 255
47.0427 -10.4528 -22.3523  255 255 255
56.9312 -10.9588 -0.429695  255 255 255
59.4436 -11.0428 5.59922  255 255 255
-27.7586 -10.0037 16.7987  255 255 255
58.9656 -11.039 4.13981  255 255 255
66.1807 -11.3727 20.8851  255 255 255
-13.3727 -10.4668 31.1144  255 255 255
-69.2675 -8.9878 -18.395  255 255 255
58.5443 -11.3379 2.18233  255 255 255
59.0368 -11.4996 4.03748  255 255 255
59.2916 -11.4662 4.70501  255 255 255
64.4678 -11.83 16.7553  255 255 255
66.7591 -11.9883 21.8984  255 255 255
58.7048 -11.7689 2.93942  255 255 255
59.7384 -11.8274 5.53373  255 255 255
47.5175 -11.4858 -22.9152  255 255 255
61.1276 -11.853 8.56561  255 255 255
66.2109 -12.0395 20.8407  255 255 255
57.0946 -11.8554 -0.771862  255 255 255
59.4778 -11.8848 4.82403  255 255 255
64.3105 -12.0378 16.5688  255 255 255
64.3105 -12.0378 16.5688  255 255 255
60.5992 -12.3244 7.28919  255 255 255
62.3421 -12.4775 11.7575  255 255 255
-25.9917 -11.3287 18.2225  255 255 255
56.9556 -12.5192 -1.29893  255 255 255
56.9974 -12.5164 -1.40418  255 255 255
59.1263 -12.5389 3.49525  255 255 255
66.6389 -12.7731 21.0474  255 255 255
50.986 -12.5809 -14.5639  255 255 255
-49.2466 -11.2121 -16.4219  255 255 255
-8.33998 -11.8841 34.388  255 255 255
60.4199 -12.9286 5.75823  255 255 255
-52.013 -11.4087 -16.061  255 255 255
59.9965 -12.9944 4.38944  255 255 255
-54.5932 -11.5256 -15.7673  255 255 255
60.6983 -13.1374 6.86886  255 255 255
60.6899 -13.1354 6.87132  255 255 255
-52.3857 -11.5536 -15.6497  255 255 255
-3.59888 -12.2399 35.5687  255 255 255
63.61 -13.2325 13.606  255 255 255
56.0455 -13.5017 -4.13633  255 255 255
-52.2452 -11.992 -15.2881  255 255 255
-52.2591 -11.9838 -15.2628  255 255 255
49.259 -13.574 -20.3604  255 255 255
58.1539 -13.7829 0.130597  255 255 255
60.7626 -13.9223 7.01117  255 255 255
65.8392 -13.9497 18.6236  255 255 255
-18.9544 -12.7018 25.6791  255 255 255
58.3884 -14.1319 0.598003  255 255 255
-19.6139 -12.9352 24.4429  255 255 255
-48.4119 -12.9646 -14.2419  255 255 255
-49.1685 -13.1728 -13.9718  255 255 255
-52.574 -13.1577 -13.8327  255 255 255
66.2379 -14.5096 19.4508  255 255 255
66.2917 -14.4974 19.4068  255 255 255
53.5305 -14.8069 -10.4416  255 255 255
66.1284 -14.5609 18.999  255 255 255
64.464 -14.7013 15.3821  255 255 255
-20.2459 -13.3686 24.9378  255 255 255
58.4567 -14.8299 0.325945  255 255 255
58.3376 -14.8699 0.528128  255 255 255
66.9257 -14.8395 20.4198  255 255 255
1.18157 -13.7795 35.849  255 255 255
51.6601 -15.3804 -14.9525  255 255 255
19.3111 -14.4466 22.3472  255 255 255
60.0138 -15.333 3.73824  255 255 255
-63.3616 -13.9213 -12.4127  255 255 255
58.1256 -15.5785 -0.590076  255 255 255
-4.03905 -14.1369 35.7598  255 255 255
58.8833 -15.886 0.604768  255 255 255
-27.7117 -14.188 21.6094  255 255 255
-55.4639 -14.5654 -12.8298  255 255 255
-21.605 -14.3236 26.0506  255 255 255
58.0179 -16.1956 -1.06491  255 255 255
10.4663 -15.026 32.3753  255 255 255
58.5378 -16.5821 -0.771343  255 255 255
-55.0057 -15.2541 -11.475  255 255 255
-17.3625 -14.8571 28.2801  255 255 255
-17.348 -14.8718 28.239  255 255 255
66.5397 -16.4926 18.6745  255 255 255
-6.81675 -15.2636 35.2534  255 255 255
55.3899 -17.4962 -9.41993  255 255 255
-20.2495 -15.3688 27.2253  255 255 255
7.20481 -15.8362 34.2125  255 255 255
59.9689 -17.6615 1.99598  255 255 255
-3.26632 -15.646 36.0708  255 255 255
60.5511 -17.7385 3.29828  255 255 255
59.6618 -17.8885 1.59918  255 255 255
58.2339 -18.0659 -2.29525  255 255 255
58.2056 -18.0662 -2.23898  255 255 255
61.2147 -17.9381 4.47091  255 255 255
67.0462 -17.6617 19.1887  255 255 255
66.5705 -17.7511 18.4655  255 255 255
66.8358 -17.8548 18.6305  255 255 255
66.7447 -17.8453 18.7715  255 255 255
57.4406 -18.7672 -4.09531  255 255 255
-18.3282 -16.3559 28.4515  255 255 255
63.5065 -18.3379 9.88777  255 255 255
63.4915 -18.34 9.89296  255 255 255
-40.8769 -17.5109 -9.65976  255 255 255
-40.8712 -17.5177 -9.66662  255 255 255
-6.73706 -16.3486 35.3848  255 255 255
26.3154 -17.5209 20.5931  255 255 255
59.369 -19.1247 -0.0932223  255 255 255
-65.7218 -17.6782 -9.29304  255 255 255
-57.2365 -17.7601 -8.82996  255 255 255
66.3058 -18.6627 16.7959  255 255 255
-1.34443 -16.8269 36.1335  255 255 255
58.2889 -19.6648 -3.41085  255 255 255
61.2558 -19.4349 3.64532  255 255 255
63.1616 -19.2656 8.01823  255 255 255
-12.2899 -17.0397 32.7829  255 255 255
-64.3197 -18.2325 -7.75976  255 255 255
-27.8009 -17.2579 25.1929  255 255 255
-15.8506 -17.1695 29.9022  255 255 255
-53.1803 -19.1467 -7.12688  255 255 255
67.7155 -19.6852 19.021  255 255 255
60.3769 -20.6191 0.785146  255 255 255
-26.8856 -17.9421 25.8734  255 255 255
-63.5743 -19.1885 -6.59218  255 255 255
-52.7852 -19.7351 -6.48419  255 255 255
-60.2562 -19.6295 -6.56856  255 255 255
-11.8898 -18.1845 33.0643  255 255 255
-15.2562 -18.3023 30.5322  255 255 255
58.7721 -21.4279 -3.38793  255 255 255
60.1237 -21.2568 -0.308693  255 255 255
-84.4373 -19.5781 -4.68735  255 255 255
-57.4139 -20.0779 -5.86725  255 255 255
-25.1988 -18.6203 26.6682  255 255 255
-20.1172 -18.5676 29.3525  255 255 255
63.232 -21.2283 7.00974  255 255 255
63.1908 -21.2079 7.04056  255 255 255
12.12 -18.9569 31.3483  255 255 255
64.5955 -21.1535 10.8147  255 255 255
-10.3108 -18.7571 33.7107  255 255 255
65.2436 -21.3308 13.3652  255 255 255
-57.7117 -20.6455 -5.36414  255 255 255
-4.00158 -18.9119 35.8564  255 255 255
67.9144 -21.2604 18.5928  255 255 255
-53.9394 -20.8373 -5.56146  255 255 255
-53.9394 -20.8373 -5.56146  255 255 255
20.7488 -20.0895 24.4044  255 255 255
59.566 -22.3994 -2.60787  255 255 255
64.7132 -22.0268 5.9761  255 255 255
12.0024 -19.6572 30.5453  255 255 255
63.6629 -21.9867 7.24602  255 255 255
-58.6704 -21.0188 -5.40617  255 255 255
67.5116 -21.5295 17.3717  255 255 255
-3.59852 -19.1993 35.8734  255 255 255
59.5482 -22.8611 -2.49717  255 255 255
67.1564 -22.3119 16.2085  255 255 255
-28.6833 -20.4593 21.3443  255 255 255
15.5848 -20.6259 29.6399  255 255 255
68.335 -22.3998 18.7647  255 255 255
-10.2225 -20.5018 33.4471  255 255 255
-56.7258 -22.8024 -3.12346  255 255 255
59.1175 -24.7833 -4.42409  255 255 255
60.3013 -24.654 -1.93969  255 255 255
-47.6921 -23.1914 -3.33733  255 255 255
60.809 -24.7525 -1.03117  255 255 255
-3.35134 -20.832 35.3682  255 255 255
1.2357 -20.9503 35.3183  255 255 255
6.13363 -21.2931 33.8694  255 255 255
-56.7719 -23.3511 -2.4662  255 255 255
-61.7879 -23.5731 -2.19199  255 255 255
-62.4229 -23.6463 -2.21907  255 255 255
63.6673 -24.9049 7.27999  255 255 255
-1.10776 -21.5004 35.3422  255 255 255
-53.5692 -23.9341 -1.32587  255 255 255
-7.23945 -21.5607 34.4958  255 255 255
22.3785 -22.8408 26.9552  255 255 255
60.4118 -26.0247 -2.65063  255 255 255
-58.3608 -24.2902 -1.14623  255 255 255
7.24982 -22.1014 33.363  255 255 255
62.7458 -25.8391 2.26786  255 255 255
22.1222 -23.1251 27.4685  255 255 255
13.0213 -22.5451 32.1661  255 255 255
13.8227 -22.5938 32.0528  255 255 255
-1.1077 -22.3596 35.0521  255 255 255
11.0391 -22.7817 32.6687  255 255 255
22.0949 -23.4488 27.6052  255 255 255
7.35762 -22.926 33.5165  255 255 255
65.0939 -26.621 7.34301  255 255 255
-14.0838 -22.6899 34.1129  255 255 255
-13.1217 -23.1109 34.6866  255 255 255
-3.80276 -23.6127 35.2162  255 255 255
-43.4439 -26.7857 0.682686  255 255 255
-20.871 -23.9261 32.0919  255 255 255
-23.9243 -24.1201 32.3705  255 255 255
7.50676 -24.5525 34.8486  255 255 255
60.9439 -29.828 -3.89196  255 255 255
7.93992 -24.9361 35.3267  255 255 255
69.6604 -28.4755 16.6096  255 255 255
-3.22826 -24.9912 36.8195  255 255 255
-3.54069 -25.1754 36.948  255 255 255
67.4255 -29.6135 11.679  255 255 255
-20.222 -25.3849 33.5847  255 255 255
0.36321 -25.4517 36.6466  255 255 255
64.6321 -30.6083 4.4504  255 255 255
62.7568 -31.3903 -0.522907  255 255 255
-17.1276 -25.76 34.0762  255 255 255
-23.2393 -26.2741 29.7115  255 255 255
19.0906 -26.9278 31.3412  255 255 255
66.3933 -30.7981 8.22169  255 255 255
-9.02209 -26.0602 35.3882  255 255 255
-13.1455 -26.1115 34.3908  255 255 255
63.1881 -31.7999 1.87223  255 255 255
69.0907 -30.0195 17.3192  255 255 255
69.0907 -30.0195 17.3192  255 255 255
67.6988 -31.1853 13.0302  255 255 255
64.8327 -32.2187 6.01476  255 255 255
66.7872 -32.0016 8.9356  255 255 255
66.7872 -32.0016 8.9356  255 255 255
-16.9894 -27.024 35.5677  255 255 255
64.6306 -33.1071 2.37756  255 255 255
66.0711 -32.6257 6.29909  255 255 255
-9.52556 -27.2367 34.9715  255 255 255
64.6877 -33.0888 2.93431  255 255 255
-4.29182 -27.3927 36.2955  255 255 255
4.37162 -27.6287 35.5528  255 255 255
65.1048 -33.5246 2.58746  255 255 255
64.929 -33.5145 2.75855  255 255 255
65.2017 -33.5437 2.52775  255 255 255
-7.42523 -27.6874 35.9279  255 255 255
68.2922 -32.6107 13.372  255 255 255
-19.5099 -28.2584 31.9388  255 255 255
4.61472 -28.1675 35.3474  255 255 255
-55.2689 -31.5998 6.68677  255 255 255
14.1972 -28.7359 34.5539  255 255 255
68.8483 -33.0987 12.5922  255 255 255
14.2349 -28.9721 34.845  255 255 255
14.2425 -28.9748 34.7905  255 255 255
-18.6766 -28.8503 32.3905  255 255 255
66.2013 -34.3051 8.0919  255 255 255
-19.3819 -29.1653 31.4428  255 255 255
-15.9249 -28.6404 35.6493  255 255 255
13.1109 -29.2728 35.1537  255 255 255
16.366 -29.6001 35.1594  255 255 255
-10.2941 -28.9068 37.0502  255 255 255
13.5389 -29.7133 34.8828  255 255 255
65.8691 -35.5547 6.41158  255 255 255
65.8786 -35.7951 4.18136  255 255 255
65.9075 -35.8131 4.2236  255 255 255
-7.00428 -29.215 37.0598  255 255 255
66.7679 -36.0001 5.90653  255 255 255
69.894 -35.1371 12.9526  255 255 255
-3.00872 -29.712 37.3923  255 255 255
8.34354 -30.0338 36.68  255 255 255
-3.6928 -29.7094 37.4054  255 255 255
7.68024 -30.1163 36.8244  255 255 255
70.2492 -35.5623 13.5205  255 255 255
8.98505 -30.3873 36.9895  255 255 255
-10.1715 -29.9415 38.0479  255 255 255
-12.1677 -30.3645 36.5841  255 255 255
-5.5853 -30.2516 38.2037  255 255 255
-7.25855 -30.2035 38.3821  255 255 255
-2.52098 -30.3566 38.1188  255 255 255
-2.53516 -30.3627 38.0725  255 255 255
-6.66169 -30.9188 38.9026  255 255 255
-53.5927 -35.4717 11.1057  255 255 255
1.04705 -31.5139 38.6319  255 255 255
-1.80376 -31.5294 38.8061  255 255 255
1.53237 -31.9402 38.2488  255 255 255
4.08556 -32.3125 37.5704  255 255 255
-13.1509 -32.6666 34.1923  255 255 255
-11.2685 -32.7033 34.9782  255 255 255
0.573624 -32.6153 37.619  255 255 255
69.6897 -39.35 10.4847  255 255 255
-1.44335 -32.5438 38.158  255 255 255
-20.6212 -34.5042 26.9499  255 255 255
-23.9045 -35.3413 22.9692  255 255 255
-11.7795 -33.3578 34.0293  255 255 255
60.0146 -41.1948 10.4469  255 255 255
-10.8705 -37.1081 31.4121  255 255 255
-41.9754 -40.7332 16.1985  255 255 255
46.0777 -43.4076 12.4794  255 255 255
15.4653 -39.8255 25.5463  255 255 255
15.3505 -39.7339 25.8596  255 255 255
9.65333 -39.5404 28.9859  255 255 255
9.39457 -39.9551 28.8238  255 255 255
63.5751 -44.7967 15.0858  255 255 255
36.5766 -45.0366 15.312  255 255 255
35.0718 -45.25 17.3976  255 255 255
1.11046 -41.0934 31.0695  255 255 255
1.59723 -41.5978 30.0562  255 255 255
2.96344 -42.2156 29.1538  255 255 255
17.7178 -43.8824 26.1883  255 255 255
3.26122 -42.9757 28.5495  255 255 255
56.1201 -47.4608 18.1999  255 255 255
-5.44078 -42.8687 31.0056  255 255 255
53.3298 -48.4001 19.2423  255 255 255
67.1804 -49.0866 20.1933  255 255 255
52.8015 -48.8617 19.9055  255 255 255
52.8106 -48.9054 19.9344  255 255 255
31.3524 -48.5689 19.8851  255 255 255
58.4159 -49.4408 20.9043  255 255 255
60.0725 -49.5179 21.0356  255 255 255
54.1191 -49.5497 20.7462  255 255 255
49.8808 -49.4636 21.22  255 255 255
-47.7455 -47.7198 23.8198  255 255 255
56.4536 -50.3746 21.9765  255 255 255
-47.2292 -47.8761 24.8368  255 255 255
51.6913 -50.4564 22.0282  255 255 255
14.4259 -48.8644 25.0492  255 255 255
-13.7033 -47.6365 28.1089  255 255 255
51.1129 -51.007 22.685  255 255 255
30.6819 -51.0301 22.7338  255 255 255
-11.2785 -48.78 27.7709  255 255 255
49.0011 -51.7195 23.5863  255 255 255
-1.24093 -48.9475 29.7998  255 255 255
0.490648 -50.0605 28.8013  255 255 255
-29.9541 -50.6616 27.1447  255 255 255
42.9797 -52.7553 25.3528  255 255 255
41.8307 -53.2532 24.5523  255 255 255
62.0473 -53.5845 25.6439  255 255 255
42.6776 -53.5566 24.7255  255 255 255
54.6398 -53.5681 25.7547  255 255 255
23.4917 -53.3243 25.8194  255 255 255
23.4631 -53.2942 25.8742  255 255 255
-29.0688 -52.1517 28.6948  255 255 255
-36.2588 -52.1506 28.9042  255 255 255
-29.7125 -52.4754 29.0111  255 255 255
-24.5512 -53.2019 29.5225  255 255 255
-22.8449 -53.4635 30.0546  255 255 255
34.8078 -56.2583 28.4792  255 255 255
48.3376 -56.5083 29.0638  255 255 255
55.8281 -56.7107 29.2454  255 255 255
47.6504 -56.9521 28.5992  255 255 255
30.4189 -56.3884 29.1405  255 255 255
60.178 -57.0784 30.0551  255 255 255
-21.9821 -54.8344 31.2521  255 255 255
50.0828 -57.1469 30.2208  255 255 255
50.0828 -57.1469 30.2208  255 255 255
-32.5355 -54.9314 32.0726  255 255 255
-17.442 -55.3884 31.7098  255 255 255
-26.2435 -55.8603 32.6693  255 255 255
31.9934 -58.1816 30.4938  255 255 255
51.1784 -58.4822 31.8023  255 255 255
-39.0275 -56.4752 33.3889  255 255 255
-21.2202 -56.5843 32.989  255 255 255
-38.5444 -56.4422 33.8739  255 255 255
-35.091 -56.5337 33.7308  255 255 255
-19.0571 -56.8587 32.9658  255 255 255
20.6843 -58.0867 31.8476  255 255 255
-22.3131 -57.2719 33.7698  255 255 255
-8.80492 -57.8029 33.5504  255 255 255
49.1184 -59.5296 33.1541  255 255 255
-8.51263 -57.9502 33.4811  255 255 255
35.9724 -59.7144 33.1447  255 255 255
-6.57248 -58.0528 33.8289  255 255 255
-1.43475 -58.1808 34.3523  255 255 255
-15.2553 -58.0561 34.3692  255 255 255
-0.0338788 -58.5292 33.6756  255 255 255
4.55057 -58.6303 33.9868  255 255 255
40.1148 -59.8701 33.7445  255 255 255
-8.58961 -58.1918 34.9624  255 255 255
-1.93029 -58.6107 34.3338  255 255 255
-13.8722 -58.1894 35.2827  255 255 255
-13.8799 -58.4149 34.7124  255 255 255
7.06512 -59.1506 33.8768  255 255 255
7.07716 -59.1705 33.8019  255 255 255
46.3399 -60.1895 34.2701  255 255 255
3.51916 -59.1109 34.0104  255 255 255
-6.04308 -58.8363 34.6923  255 255 255
2.35463 -59.0137 34.8238  255 255 255
1.50468 -59.3641 34.1627  255 255 255
-9.39666 -58.9853 34.924  255 255 255
49.8574 -60.8283 34.7276  255 255 255
-16.6893 -58.7898 35.9337  255 255 255
-16.6893 -58.7898 35.9337  255 255 255
29.8259 -60.3313 34.7326  255 255 255
41.132 -60.9647 35.0601  255 255 255
31.088 -60.8344 35.4344  255 255 255
48.5848 -61.3604 35.4514  255 255 255
48.5848 -61.3604 35.4514  255 255 255
-17.231 -59.6907 36.3364  255 255 255
-17.232 -59.7054 36.3024  255 255 255
-15.8848 -59.7181 36.3329  255 255 255
-15.8725 -59.518 36.8067  255 255 255
43.4676 -61.8783 34.9084  255 255 255
22.7235 -60.9351 35.8102  255 255 255
47.501 -61.6617 35.8043  255 255 255
-5.22169 -60.1275 36.2502  255 255 255
-15.9893 -59.918 36.5878  255 255 255
48.5568 79.8721 -86.5686  255 255 255
-75.6353 54.253 -13.7291  255 255 255
1.27423 69.3699 -59.8656  255 255 255
1.32568 69.4654 -60.0915  255 255 255
57.8137 81.3729 -91.9592  255 255 255
0.00500694 68.9978 -59.2008  255 255 255
-65.5174 55.7457 -19.6398  255 255 255
33.2518 75.8543 -79.5336  255 255 255
-3.31011 67.923 -57.6296  255 255 255
-152.94 91.5012 -106.488  255 255 255
-10.0618 65.881 -54.8428  255 255 255
51.943 49.3206 -12.051  255 255 255
50.9363 78.4642 -90.0002  255 255 255
-53.0745 57.4251 -29.6611  255 255 255
67.6377 81.6471 -99.0382  255 255 255
12.4019 69.6973 -68.2095  255 255 255
63.5257 80.3767 -97.2462  255 255 255
52.1274 48.7888 -12.9601  255 255 255
-15.8961 63.8076 -52.0027  255 255 255
-15.9093 63.7396 -52.0381  255 255 255
-17.0755 63.3006 -51.0194  255 255 255
59.4061 78.9615 -95.5124  255 255 255
67.5025 80.5005 -99.7505  255 255 255
-55.8963 55.8903 -27.9923  255 255 255
53.3272 47.3516 -11.398  255 255 255
58.3744 77.7201 -95.862  255 255 255
27.0812 71.1617 -78.3275  255 255 255
57.2188 77.3925 -95.4493  255 255 255
54.3717 46.2156 -8.98457  255 255 255
55.8506 76.8211 -94.7177  255 255 255
-65.7964 52.1669 -20.2542  255 255 255
-1.69993 64.9688 -61.3432  255 255 255
54.8282 45.4802 -8.12039  255 255 255
22.0468 69.7619 -75.6113  255 255 255
48.7882 49.6187 -20.058  255 255 255
49.2608 37.2412 14.103  255 255 255
27.5868 70.2044 -79.507  255 255 255
55.761 75.7329 -95.4975  255 255 255
-88.5406 51.0698 -17.7121  255 255 255
49.4518 36.4752 14.1875  255 255 255
-4.38077 63.0088 -61.0358  255 255 255
50.9887 35.4137 15.4836  255 255 255
-52.736 53.7492 -32.3279  255 255 255
-36.393 55.9366 -41.1454  255 255 255
-36.3585 56.4563 -42.4782  255 255 255
-26.1022 58.2088 -48.557  255 255 255
-27.3071 57.8602 -48.2854  255 255 255
63.8308 75.2757 -103.919  255 255 255
-66.3154 50.4073 -24.2192  255 255 255
53.3893 32.1033 20.3381  255 255 255
52.5497 43.9544 -14.6892  255 255 255
12.8813 63.8871 -74.0155  255 255 255
-14.6925 58.3812 -57.4211  255 255 255
-116.286 63.0159 -59.9824  255 255 255
-15.535 57.7409 -57.6433  255 255 255
-15.5541 57.7427 -57.6104  255 255 255
-24.4972 55.7397 -52.2734  255 255 255
-14.9623 57.4482 -58.0457  255 255 255
-55.6496 50.4153 -33.3707  255 255 255
54.3893 41.2932 -11.8112  255 255 255
62.4715 74.3811 -114.709  255 255 255
-5.74395 58.4493 -64.5992  255 255 255
53.5388 30.7934 19.2948  255 255 255
-20.9466 55.4706 -55.4942  255 255 255
-2.53329 58.7231 -66.921  255 255 255
56.0335 28.7194 24.2725  255 255 255
-5.35525 57.7167 -65.6599  255 255 255
55.2134 39.8979 -10.9066  255 255 255
-19.4677 55.0167 -56.9035  255 255 255
-19.4645 55.0283 -56.8986  255 255 255
51.1007 31.5157 14.1441  255 255 255
56.3439 28.2828 24.2211  255 255 255
53.6487 29.9622 18.8296  255 255 255
20.1804 61.4844 -80.9168  255 255 255
32.783 63.6227 -88.4533  255 255 255
57.0563 27.5938 25.2749  255 255 255
-10.8889 55.7527 -63.1715  255 255 255
-17.9256 54.4555 -59.0972  255 255 255
49.7603 66.4747 -99.2013  255 255 255
56.6825 27.8236 24.2715  255 255 255
57.491 26.609 27.9508  255 255 255
57.3219 26.8787 26.1847  255 255 255
57.6862 26.2785 28.2609  255 255 255
57.6862 26.2785 28.2609  255 255 255
55.7675 28.1581 21.8537  255 255 255
57.9248 26.1868 26.7168  255 255 255
53.1523 39.5045 -17.1541  255 255 255
58.0947 25.9323 27.2039  255 255 255
-65.76 45.2688 -29.807  255 255 255
58.8181 24.9225 29.6781  255 255 255
42.4549 63.1622 -96.9596  255 255 255
56.2177 26.9505 22.292  255 255 255
59.0521 24.4298 30.3275  255 255 255
56.6261 26.5899 23.2384  255 255 255
58.9618 24.9246 28.3746  255 255 255
49.9582 30.2443 10.708  255 255 255
59.2305 24.4361 29.4763  255 255 255
-79.0895 42.4485 -21.7453  255 255 255
57.1957 25.7021 23.5062  255 255 255
49.9764 39.7731 -24.5515  255 255 255
59.1479 24.3322 27.7244  255 255 255
49.1635 39.845 -25.0941  255 255 255
49.2327 39.8765 -25.1892  255 255 255
49.1505 39.8351 -25.0802  255 255 255
-115.53 55.5703 -65.3957  255 255 255
60.4859 22.9502 31.1691  255 255 255
-11.2821 51.6832 -67.2657  255 255 255
-52.0906 45.0713 -40.3207  255 255 255
60.4704 22.8028 30.7334  255 255 255
60.7168 22.6273 31.5292  255 255 255
-53.3821 44.1162 -38.721  255 255 255
51.1863 37.7085 -22.5385  255 255 255
60.2652 22.7349 29.5733  255 255 255
61.3344 21.733 32.0143  255 255 255
47.8149 39.0319 -29.4575  255 255 255
-11.8358 49.9774 -66.6354  255 255 255
53.0421 26.2234 15.4904  255 255 255
-63.1488 42.093 -34.5908  255 255 255
49.4247 37.5501 -26.1873  255 255 255
49.4105 37.5397 -26.1528  255 255 255
-27.56 47.015 -57.405  255 255 255
-32.389 46.4501 -55.2591  255 255 255
49.982 37.0804 -25.9707  255 255 255
49.9639 27.591 8.35648  255 255 255
49.7207 27.4759 8.75582  255 255 255
-41.2927 44.5745 -49.2998  255 255 255
47.0587 38.2844 -31.2034  255 255 255
51.6863 35.7381 -22.1368  255 255 255
49.895 27.0411 8.89748  255 255 255
-43.1597 44.0617 -48.5463  255 255 255
50.0735 27.1525 7.51445  255 255 255
18.9328 53.0923 -88.4962  255 255 255
50.3655 26.3561 9.42004  255 255 255
54.0078 24.4779 16.2725  255 255 255
52.279 25.1663 12.828  255 255 255
3.14682 49.7009 -79.6694  255 255 255
-73.6457 38.3047 -30.8705  255 255 255
-74.428 37.8894 -30.0303  255 255 255
53.0553 23.9671 13.4962  255 255 255
-55.9528 40.4626 -43.9197  255 255 255
61.6721 19.3179 30.2553  255 255 255
-78.3175 35.658 -25.1981  255 255 255
51.0533 32.6608 -25.1319  255 255 255
-10.0244 44.9428 -73.3301  255 255 255
-47.9745 39.4425 -48.3561  255 255 255
51.4898 32.0751 -24.6039  255 255 255
57.7205 20.4424 22.019  255 255 255
58.6614 19.9398 23.7238  255 255 255
-81.8861 34.851 -26.5027  255 255 255
-81.8931 34.8641 -26.527  255 255 255
52.8063 22.4477 12.0866  255 255 255
-7.94934 44.3788 -75.5855  255 255 255
57.4688 47.3764 -89.3768  255 255 255
-22.61 39.8653 -57.6774  255 255 255
-11.4296 43.4305 -73.7747  255 255 255
52.5202 30.5224 -22.9351  255 255 255
-79.1479 34.4855 -28.7053  255 255 255
-79.1512 34.4648 -28.5826  255 255 255
-129.406 49.0076 -80.4385  255 255 255
-8.34442 43.7422 -76.4435  255 255 255
-41.3471 39.0046 -54.041  255 255 255
53.0463 29.9204 -22.2115  255 255 255
52.425 21.9732 10.7813  255 255 255
47.7167 32.7258 -34.1655  255 255 255
49.4615 23.1496 5.28392  255 255 255
49.4191 23.1327 5.33639  255 255 255
51.7044 30.3041 -26.4889  255 255 255
-10.297 42.5865 -75.3492  255 255 255
53.552 29.1696 -21.4768  255 255 255
-8.32836 42.4621 -76.8627  255 255 255
-12.9083 41.7486 -74.2586  255 255 255
53.4785 20.7025 12.7823  255 255 255
55.5147 19.6462 16.47  255 255 255
58.5296 18.1483 22.231  255 255 255
58.5193 18.1234 22.2278  255 255 255
-12.4721 41.0954 -74.9121  255 255 255
-42.5351 36.7225 -54.697  255 255 255
-41.1778 36.863 -55.758  255 255 255
-41.1136 36.739 -55.309  255 255 255
-125.351 43.9041 -74.9601  255 255 255
-64.8914 33.6535 -40.4351  255 255 255
-36.2701 37.0678 -60.5461  255 255 255
-36.29 37.0586 -60.5259  255 255 255
-58.9246 33.9719 -44.4777  255 255 255
-42.477 35.5902 -55.9182  255 255 255
-69.5144 31.2823 -36.3458  255 255 255
48.3808 21.0176 1.15711  255 255 255
-65.7405 32.3483 -41.3107  255 255 255
-30.6522 35.6047 -65.5234  255 255 255
-53.9493 32.8676 -49.905  255 255 255
60.0324 15.26 23.9747  255 255 255
-82.6193 29.616 -30.3666  255 255 255
-83.5481 29.4619 -30.581  255 255 255
50.2133 19.2049 4.52516  255 255 255
50.2109 19.204 4.52955  255 255 255
49.8811 19.2891 4.02246  255 255 255
60.6409 14.6169 25.0035  255 255 255
-69.855 30.5852 -40.34  255 255 255
-2.08148 35.4099 -73.011  255 255 255
50.5782 18.8676 4.20981  255 255 255
-64.3931 30.8855 -44.0912  255 255 255
53.2699 17.514 10.1086  255 255 255
53.3264 17.5389 10.0406  255 255 255
-41.7858 33.0802 -59.3078  255 255 255
49.3754 19.045 2.30746  255 255 255
51.6142 35.1381 -75.5895  255 255 255
-78.7957 29.0108 -34.7149  255 255 255
60.354 14.2816 23.5076  255 255 255
48.2692 26.462 -36.2354  255 255 255
-73.0497 29.8279 -42.6475  255 255 255
51.1033 17.5414 5.38953  255 255 255
-39.7662 31.6615 -61.0592  255 255 255
48.7348 24.5815 -34.9463  255 255 255
53.0505 23.0955 -27.8543  255 255 255
53.1039 23.1337 -28.0095  255 255 255
58.8428 13.3418 20.7361  255 255 255
-12.1523 30.5619 -66.1754  255 255 255
-85.6554 26.0104 -32.0334  255 255 255
-0.777883 30.1028 -66.454  255 255 255
58.2445 13.2545 18.2575  255 255 255
-73.8642 27.4294 -45.8091  255 255 255
51.2609 15.5691 4.86975  255 255 255
48.4165 22.9604 -36.9357  255 255 255
-3.04763 27.6359 -63.4308  255 255 255
-64.8515 26.1187 -47.3505  255 255 255
60.6124 11.1976 23.8307  255 255 255
62.8294 10.4407 27.4501  255 255 255
53.7101 19.9669 -27.1555  255 255 255
-82.6179 24.0514 -35.5068  255 255 255
52.8279 20.138 -28.6885  255 255 255
52.9578 20.189 -28.8566  255 255 255
63.1196 10.0232 27.8987  255 255 255
-65.5211 25.3608 -48.0894  255 255 255
-83.3381 23.8691 -37.7817  255 255 255
50.0234 14.1734 0.997625  255 255 255
58.4347 11.1692 17.9953  255 255 255
51.5815 19.7264 -31.3814  255 255 255
-65.7238 24.5712 -47.971  255 255 255
-65.4039 24.648 -49.2018  255 255 255
19.8751 25.0317 -62.5856  255 255 255
59.0771 10.81 19.1193  255 255 255
-81.0348 22.4429 -38.7956  255 255 255
54.3925 11.6891 8.41572  255 255 255
53.9805 11.6066 7.96561  255 255 255
0.178307 22.5366 -57.1196  255 255 255
51.5797 12.1136 4.11296  255 255 255
51.7363 12.1701 3.76391  255 255 255
51.7755 12.1944 3.71855  255 255 255
-1.63007 22.327 -57.6155  255 255 255
50.4707 12.531 0.0505213  255 255 255
-37.8173 22.1756 -54.4425  255 255 255
48.9081 12.7205 -2.90269  255 255 255
48.8789 12.6716 -2.6655  255 255 255
-70.2427 22.0119 -47.5701  255 255 255
58.5247 9.44475 17.146  255 255 255
-81.1617 20.777 -38.3338  255 255 255
52.0391 11.096 3.25454  255 255 255
-78.9966 20.2152 -40.0255  255 255 255
58.4973 8.94801 16.6164  255 255 255
19.4528 20.4372 -57.1012  255 255 255
-40.8155 20.1739 -52.3488  255 255 255
-78.4547 19.3103 -39.3353  255 255 255
-79.2746 19.7867 -41.9207  255 255 255
-69.4435 20.6708 -50.9127  255 255 255
-4.03036 19.4276 -54.4632  255 255 255
-16.4216 18.9168 -52.783  255 255 255
-16.4434 18.9155 -52.8613  255 255 255
-35.3674 18.2094 -50.2904  255 255 255
63.6918 5.67889 26.776  255 255 255
-12.0016 15.4291 -49.1058  255 255 255
-13.1375 15.077 -48.6256  255 255 255
-5.18746 14.5447 -48.4981  255 255 255
53.3112 7.19295 3.71182  255 255 255
-17.5709 14.4227 -48.1032  255 255 255
53.5232 6.5364 3.7196  255 255 255
-14.5296 13.4146 -46.7004  255 255 255
-14.5059 13.392 -46.6565  255 255 255
-15.1887 13.2044 -46.3203  255 255 255
50.4889 6.45042 -3.18131  255 255 255
50.4868 6.45464 -3.18091  255 255 255
52.21 5.61617 0.270344  255 255 255
0.802866 3.19101 21.4259  255 255 255
51.0826 5.57195 -2.23811  255 255 255
64.1997 1.84263 24.9569  255 255 255
52.284 4.41878 -0.348016  255 255 255
62.5136 1.70099 22.0857  255 255 255
-54.7486 9.67925 -40.0024  255 255 255
57.3094 2.52999 10.4748  255 255 255
-18.6763 8.67884 -40.7741  255 255 255
-18.6774 8.69788 -40.9643  255 255 255
57.5685 2.00855 11.2468  255 255 255
-24.003 7.89668 -39.6876  255 255 255
-26.2118 7.76933 -39.1617  255 255 255
5.63924 0.66947 22.8434  255 255 255
42.471 6.91764 -43.3011  255 255 255
46.8461 3.93489 -13.8493  255 255 255
62.4181 0.551477 20.1356  255 255 255
62.4067 0.551358 20.153  255 255 255
-42.5773 7.21652 -37.6721  255 255 255
65.0795 -0.382549 25.6125  255 255 255
62.6401 0.0838984 20.4333  255 255 255
58.4905 0.82401 12.5789  255 255 255
-26.7846 6.60756 -38.3952  255 255 255
-26.7338 6.5227 -37.8176  255 255 255
57.3944 0.983005 8.91567  255 255 255
55.4385 1.16465 4.73947  255 255 255
54.0068 1.30794 1.42645  255 255 255
6.37856 -0.436167 23.0514  255 255 255
-35.191 5.86569 -38.0829  255 255 255
-27.3219 5.50016 -36.7422  255 255 255
-28.2536 5.12508 -35.8896  255 255 255
57.3618 0.0417543 8.17967  255 255 255
58.8015 -0.242262 11.2227  255 255 255
-27.3988 4.72166 -35.902  255 255 255
-27.4389 4.72699 -35.8376  255 255 255
-40.3899 4.93023 -35.455  255 255 255
57.2368 -0.165254 7.39517  255 255 255
-48.1034 4.46935 -34.2142  255 255 255
63.3865 -1.64563 20.8462  255 255 255
57.8497 -0.676163 8.64008  255 255 255
62.2493 -1.54532 18.2452  255 255 255
55.1047 -0.258348 3.24335  255 255 255
59.3812 -1.1386 12.2081  255 255 255
-39.2939 3.55332 -33.76  255 255 255
-11.4418 -1.89639 26.4594  255 255 255
-11.4471 -1.79001 25.868  255 255 255
58.0059 -1.10366 8.4753  255 255 255
-27.553 3.25293 -34.07  255 255 255
-27.5547 3.26756 -34.1049  255 255 255
59.4572 -1.51981 11.715  255 255 255
-10.469 -2.11335 27.5024  255 255 255
60.2408 -1.67279 13.4281  255 255 255
-71.7993 3.97762 -33.5697  255 255 255
58.6408 -1.56684 10.3616  255 255 255
61.997 -2.07515 15.9189  255 255 255
56.2784 -1.34457 4.9383  255 255 255
58.2619 -1.7596 8.805  255 255 255
58.2619 -1.7596 8.805  255 255 255
59.3968 -2.04927 11.3531  255 255 255
-39.4835 2.34287 -31.9161  255 255 255
-40.5077 2.27925 -32.107  255 255 255
-12.8203 -2.81596 26.6767  255 255 255
60.5775 -2.7416 12.0179  255 255 255
60.111 -2.73801 12.761  255 255 255
58.2083 -2.47619 8.32369  255 255 255
58.2031 -2.48485 8.32113  255 255 255
64.8756 -3.59607 22.9686  255 255 255
61.0398 -3.06478 14.7766  255 255 255
-71.4715 2.15099 -30.7005  255 255 255
60.1526 -3.07468 12.3298  255 255 255
62.3387 -3.62932 17.7786  255 255 255
62.3387 -3.62932 17.7786  255 255 255
60.0044 -3.25746 11.8777  255 255 255
60.0044 -3.25746 11.8777  255 255 255
-46.9678 0.954081 -30.6778  255 255 255
57.1859 -2.82442 5.69888  255 255 255
-40.5656 0.765302 -30.0361  255 255 255
59.7993 -3.43872 11.3344  255 255 255
65.4346 -4.43949 23.8957  255 255 255
57.4919 -3.32756 6.42907  255 255 255
63.5484 -4.30318 19.4131  255 255 255
64.1138 -4.32088 20.3973  255 255 255
63.0266 -4.25154 18.128  255 255 255
60.8495 -4.04779 13.4751  255 255 255
-14.8307 -4.10406 26.2251  255 255 255
53.5493 -3.06454 -2.55962  255 255 255
62.5326 -4.41854 17.057  255 255 255
53.4126 -3.50139 -2.9185  255 255 255
53.4329 -3.49438 -2.97051  255 255 255
61.4651 -4.59245 14.3172  255 255 255
61.4268 -4.63119 14.3711  255 255 255
62.1776 -4.80467 16.0848  255 255 255
-5.62099 -5.0662 31.3097  255 255 255
11.3535 -5.23681 27.9282  255 255 255
60.7407 -4.79505 12.4877  255 255 255
61.0312 -4.89316 13.4172  255 255 255
62.1836 -5.12848 15.4274  255 255 255
58.535 -4.61234 7.54921  255 255 255
65.6892 -5.77253 23.2369  255 255 255
61.8102 -5.40616 14.8605  255 255 255
-12.6272 -5.74229 29.1035  255 255 255
55.593 -5.08157 -0.01464  255 255 255
60.6892 -5.66881 11.7546  255 255 255
64.4688 -6.21647 19.8809  255 255 255
63.809 -6.2932 20.9942  255 255 255
58.5358 -5.69938 8.10457  255 255 255
62.356 -6.2362 15.0469  255 255 255
62.356 -6.2362 15.0469  255 255 255
59.5618 -6.06072 9.33288  255 255 255
-13.0899 -6.28119 29.2482  255 255 255
-17.2026 -6.20002 24.9536  255 255 255
60.2844 -6.66807 10.675  255 255 255
60.2773 -6.66604 10.6851  255 255 255
47.6078 -5.46744 -17.347  255 255 255
47.7919 -5.47722 -17.6484  255 255 255
-44.3423 -3.92249 -25.0507  255 255 255
61.721 -7.03681 12.9332  255 255 255
61.721 -7.03681 12.9332  255 255 255
47.2691 -5.86938 -18.8184  255 255 255
54.1898 -6.56527 -3.91388  255 255 255
61.7135 -7.75605 12.7255  255 255 255
61.6928 -7.75749 12.7454  255 255 255
-15.0766 -7.42274 28.2107  255 255 255
-14.4014 -7.55945 28.7516  255 255 255
-12.7877 -7.71586 30.3073  255 255 255
-66.6072 -5.07729 -22.9054  255 255 255
66.3194 -9.07565 22.7257  255 255 255
50.4896 -7.9237 -13.3408  255 255 255
61.4749 -8.79501 12.5348  255 255 255
-0.519649 -8.78713 34.5343  255 255 255
-66.265 -6.16333 -21.5479  255 255 255
62.0736 -9.03003 12.4772  255 255 255
63.2881 -9.2836 15.7903  255 255 255
46.1093 -8.24556 -23.8011  255 255 255
62.3114 -9.57326 13.001  255 255 255
63.3498 -9.82885 15.6192  255 255 255
63.0466 -9.88074 14.7475  255 255 255
-27.1321 -8.85386 15.2721  255 255 255
-15.7338 -9.33491 28.6499  255 255 255
59.2712 -9.8906 5.81306  255 255 255
-69.1135 -7.56606 -20.2648  255 255 255
51.1371 -9.65498 -13.3589  255 255 255
59.0489 -10.1014 5.14052  255 255 255
64.9901 -10.3776 18.5295  255 255 255
47.1891 -9.5323 -22.0464  255 255 255
-67.5734 -7.88317 -18.9519  255 255 255
-19.2156 -9.49647 24.0087  255 255 255
4.70953 -10.0847 34.0347  255 255 255
63.1277 -10.6651 14.1641  255 255 255
63.5804 -10.848 16.1186  255 255 255
65.9821 -11.073 20.9161  255 255 255
66.0115 -11.069 20.9162  255 255 255
57.6657 -10.8325 1.06309  255 255 255
61.7828 -10.935 10.7906  255 255 255
63.2102 -11.0639 14.9662  255 255 255
-83.6761 -8.56679 -17.0744  255 255 255
-84.0249 -8.57105 -18.0086  255 255 255
45.8747 -10.5856 -24.1468  255 255 255
58.5252 -11.1619 3.02032  255 255 255
64.4359 -11.4094 17.4029  255 255 255
-29.3852 -10.2497 16.4213  255 255 255
59.8197 -11.3781 6.26242  255 255 255
52.8034 -11.2726 -10.1251  255 255 255
52.8034 -11.2726 -10.1251  255 255 255
-21.7973 -10.6377 21.8273  255 255 255
6.69385 -11.2949 33.7214  255 255 255
64.7298 -11.977 17.1718  255 255 255
47.7869 -11.9275 -22.3602  255 255 255
-111.249 -9.56995 -14.7111  255 255 255
64.3815 -12.4164 16.2676  255 255 255
-1.55926 -11.6364 35.6158  255 255 255
-1.56169 -11.6284 35.6192  255 255 255
65.65 -12.6074 19.2156  255 255 255
65.0747 -12.559 17.7859  255 255 255
50.8346 -12.5649 -15.5306  255 255 255
64.6427 -12.7996 16.7038  255 255 255
52.5089 -12.9221 -11.4235  255 255 255
57.5826 -13.0407 -0.585519  255 255 255
6.28328 -12.5298 34.1929  255 255 255
60.3882 -13.6507 5.74627  255 255 255
-22.4135 -12.5571 23.9875  255 255 255
56.3217 -13.9621 -4.22041  255 255 255
65.5459 -13.9854 18.2333  255 255 255
56.0823 -14.4116 -5.40109  255 255 255
57.368 -14.3691 -1.74169  255 255 255
57.4351 -14.3613 -1.82513  255 255 255
66.5591 -14.5649 20.1681  255 255 255
49.9062 -14.9567 -18.4025  255 255 255
49.9062 -14.9567 -18.4025  255 255 255
57.5409 -14.7587 -1.76297  255 255 255
-53.3704 -13.3216 -13.7451  255 255 255
58.3189 -15.2201 -0.451056  255 255 255
58.3188 -15.2194 -0.44357  255 255 255
55.7112 -15.3519 -6.34025  255 255 255
-7.93184 -13.787 35.2382  255 255 255
67.0875 -15.1225 20.7712  255 255 255
-11.4874 -13.883 33.1229  255 255 255
66.8584 -15.2126 20.3175  255 255 255
53.3996 -15.798 -12.0479  255 255 255
60.2751 -15.807 4.66046  255 255 255
66.7528 -15.4854 19.9062  255 255 255
-75.4389 -14.0397 -12.7004  255 255 255
66.5381 -15.6103 18.9458  255 255 255
-76.114 -14.1991 -13.115  255 255 255
-8.10293 -14.2988 34.816  255 255 255
-20.51 -14.3775 26.2634  255 255 255
59.5822 -16.2116 2.36148  255 255 255
59.6159 -16.2054 2.37772  255 255 255
66.8528 -15.9335 20.6721  255 255 255
53.8018 -16.3623 -11.5293  255 255 255
50.9837 -16.8755 -17.5926  255 255 255
-41.6881 -15.385 -12.2661  255 255 255
6.72194 -15.1424 34.5186  255 255 255
-13.9458 -15.023 31.7066  255 255 255
-55.3718 -15.7122 -10.8774  255 255 255
60.5448 -17.3049 3.44222  255 255 255
51.8085 -18.1206 -16.3155  255 255 255
-53.4808 -16.3925 -10.4535  255 255 255
11.353 -16.0076 32.1212  255 255 255
-16.4567 -16.0415 29.3424  255 255 255
58.8445 -18.4917 -1.41927  255 255 255
60.3406 -18.3616 2.43592  255 255 255
60.3406 -18.3616 2.43592  255 255 255
59.0751 -18.6093 -0.625194  255 255 255
0.593278 -16.315 36.2084  255 255 255
-53.5601 -17.3626 -8.67736  255 255 255
-53.6758 -17.366 -9.14723  255 255 255
57.9741 -18.7771 -3.80712  255 255 255
-21.5652 -16.7574 27.0928  255 255 255
-64.4333 -17.7684 -8.19416  255 255 255
-10.1183 -16.909 34.1391  255 255 255
-23.9787 -17.3333 25.2053  255 255 255
-49.0901 -18.9416 -7.62726  255 255 255
-23.5864 -17.7245 25.5125  255 255 255
-63.7231 -18.7718 -7.28563  255 255 255
11.4262 -18.0164 31.1585  255 255 255
60.1036 -20.9652 0.221146  255 255 255
61.5513 -20.9071 3.66024  255 255 255
1.56929 -18.2134 35.8725  255 255 255
-60.0443 -20.4986 -5.61556  255 255 255
61.1027 -22.367 1.09757  255 255 255
67.3489 -21.5737 18.3477  255 255 255
-3.27703 -19.3264 35.8492  255 255 255
-61.1954 -21.4507 -4.45765  255 255 255
7.17539 -19.8021 34.162  255 255 255
-2.20276 -19.5851 35.7179  255 255 255
-18.3828 -19.6639 31.661  255 255 255
7.59987 -19.9943 33.863  255 255 255
60.5423 -23.5439 -0.907539  255 255 255
60.5446 -23.5381 -0.920473  255 255 255
-6.50469 -20.5034 34.9693  255 255 255
21.9365 -21.7311 25.7771  255 255 255
-8.82281 -20.7015 34.1651  255 255 255
-8.82736 -20.6991 34.2146  255 255 255
-14.5155 -20.8661 32.9749  255 255 255
-14.5155 -20.8661 32.9749  255 255 255
60.4816 -24.8899 -1.4289  255 255 255
45.264 -25.5098 -7.28361  255 255 255
-14.3694 -21.2218 33.4418  255 255 255
62.8758 -25.1233 3.24825  255 255 255
62.3933 -25.3811 2.98092  255 255 255
62.4088 -25.3791 2.94783  255 255 255
60.5511 -25.7658 -0.711064  255 255 255
47.5936 -26.2969 -6.24635  255 255 255
-19.3496 -22.068 30.3838  255 255 255
44.6074 -26.4478 -6.56189  255 255 255
11.6281 -22.8835 32.9165  255 255 255
58.4429 -27.4156 -6.24973  255 255 255
-18.5195 -22.814 31.0895  255 255 255
62.3133 -27.1639 2.07154  255 255 255
-45.9995 -25.8803 -0.0873584  255 255 255
-6.84237 -23.1716 34.6964  255 255 255
45.2279 -28.2029 -4.19583  255 255 255
45.2245 -28.1882 -4.22514  255 255 255
-20.6645 -23.851 32.057  255 255 255
45.6961 -28.8779 -3.66872  255 255 255
45.6961 -28.8779 -3.66872  255 255 255
64.307 -28.437 4.5697  255 255 255
64.6079 -28.4458 4.30752  255 255 255
-6.68412 -24.3268 36.3182  255 255 255
-22.0763 -25.0598 31.9024  255 255 255
9.17643 -25.2417 34.3036  255 255 255
67.3092 -29.178 11.7997  255 255 255
-13.0009 -25.5964 34.0959  255 255 255
-13.0009 -25.5964 34.0959  255 255 255
-18.8446 -25.8712 34.1945  255 255 255
-23.5501 -26.6474 29.1662  255 255 255
68.1833 -30.7309 12.2297  255 255 255
69.3179 -30.4838 16.0319  255 255 255
16.2062 -27.3254 32.8266  255 255 255
17.3063 -27.3778 33.0399  255 255 255
-11.597 -26.7373 34.9436  255 255 255
-13.5737 -26.9288 35.2937  255 255 255
-9.96206 -27.116 35.0714  255 255 255
54.9933 -33.4512 1.13432  255 255 255
10.0319 -28.0961 34.4275  255 255 255
67.8308 -32.7554 10.5729  255 255 255
67.3081 -32.6483 11.4733  255 255 255
-13.6616 -27.617 35.7086  255 255 255
69.7554 -32.8778 14.5461  255 255 255
69.1529 -32.6724 16.3814  255 255 255
-9.15991 -28.4767 36.5022  255 255 255
-19.0428 -29.5464 31.5026  255 255 255
12.4527 -29.4186 35.4719  255 255 255
4.19453 -29.2852 36.2091  255 255 255
-15.516 -29.2342 37.7904  255 255 255
-5.47367 -29.7748 37.643  255 255 255
-5.48794 -29.7651 37.6794  255 255 255
53.2956 -36.7801 5.13581  255 255 255
-58.6299 -34.5368 9.55214  255 255 255
-44.8089 -34.7344 9.13331  255 255 255
8.14206 -30.6595 37.4573  255 255 255
-43.8126 -35.0264 9.88083  255 255 255
-9.47343 -31.2268 37.1788  255 255 255
6.74036 -31.3867 38.4258  255 255 255
6.74397 -31.3989 38.3999  255 255 255
-58.4121 -35.5914 11.0237  255 255 255
-43.3596 -35.6991 10.5802  255 255 255
-45.0915 -35.9808 10.5753  255 255 255
-1.05118 -31.5683 38.6753  255 255 255
43.2493 -38.2024 7.44733  255 255 255
-10.9577 -32.5424 35.2825  255 255 255
-19.7165 -34.2611 27.6896  255 255 255
0.410599 -33.5779 36.8273  255 255 255
15.122 -35.9953 27.8583  255 255 255
-40.6533 -38.1855 13.6816  255 255 255
-19.7797 -35.7939 26.842  255 255 255
49.0178 -40.6885 9.41546  255 255 255
11.349 -36.7795 29.7754  255 255 255
3.77059 -36.1932 34.3636  255 255 255
-35.8874 -39.7383 16.6623  255 255 255
60.7514 -42.8649 12.5095  255 255 255
1.02859 -39.0544 32.5608  255 255 255
1.45119 -39.3244 32.1626  255 255 255
1.42735 -39.3066 32.301  255 255 255
0.859793 -39.7758 31.9052  255 255 255
0.843 -39.7272 32.0966  255 255 255
-15.6346 -40.5102 28.4246  255 255 255
4.78545 -40.4761 30.2884  255 255 255
4.93998 -41.6337 29.3844  255 255 255
-7.26059 -41.6761 29.4602  255 255 255
53.5047 -49.1481 20.2034  255 255 255
-13.5925 -44.4521 30.9861  255 255 255
31.775 -49.0066 20.2633  255 255 255
30.0923 -49.3859 20.9157  255 255 255
29.9862 -49.2828 21.2102  255 255 255
30.5674 -49.454 20.8033  255 255 255
43.7398 -50.2312 21.4535  255 255 255
-35.0256 -48.391 24.6296  255 255 255
-14.0471 -47.895 27.9804  255 255 255
42.4558 -51.1606 21.924  255 255 255
26.9019 -50.6376 22.4021  255 255 255
58.0924 -51.4713 22.892  255 255 255
-24.7456 -49.0959 26.5819  255 255 255
36.6615 -51.628 22.8335  255 255 255
28.6626 -51.7023 23.7354  255 255 255
43.7498 -52.236 23.9418  255 255 255
-5.2159 -49.8518 29.4782  255 255 255
60.8548 -53.307 25.6933  255 255 255
25.8369 -52.7368 26.2101  255 255 255
53.55 -53.6504 26.1207  255 255 255
35.2393 -56.3402 28.4964  255 255 255
25.4255 -56.174 29.1541  255 255 255
-27.1397 -54.7024 31.288  255 255 255
20.7516 -56.7102 30.143  255 255 255
-2.55081 -56.5826 31.6404  255 255 255
-38.0191 -56.378 33.1441  255 255 255
-12.1756 -57.0991 33.3977  255 255 255
48.4475 -59.081 32.5271  255 255 255
-11.1454 -57.4595 33.2577  255 255 255
-18.1428 -57.4411 33.9864  255 255 255
-10.6559 -57.9458 33.8767  255 255 255
-76.7706 -57.7853 35.9004  255 255 255
29.22 -59.5031 33.2908  255 255 255
-13.6953 -58.208 34.3906  255 255 255
35.1945 -59.9566 34.2551  255 255 255
-13.859 -58.6698 34.9868  255 255 255
-4.86561 -59.7346 36.1047  255 255 255
19.3123 -60.5293 35.4763  255 255 255
-35.6914 -59.3899 36.9267  255 255 255
-8.44365 -59.8569 35.8945  255 255 255
-8.42069 -59.8008 36.0159  255 255 255
53.2082 49.8056 -9.58575  255 255 255
-51.1607 58.5446 -28.8958  255 255 255
-41.6207 60.1062 -34.4215  255 255 255
50.0356 79.2293 -88.6111  255 255 255
-65.6927 55.4353 -20.4812  255 255 255
-65.6789 55.3107 -20.2598  255 255 255
1.12387 68.4587 -60.6618  255 255 255
53.9897 48.4414 -8.7905  255 255 255
40.538 76.4882 -85.0492  255 255 255
-79.0113 51.899 -11.4987  255 255 255
-79.2849 52.292 -12.6814  255 255 255
-60.7202 55.3465 -24.1469  255 255 255
-33.6591 60.1504 -40.8899  255 255 255
-10.2804 64.9194 -55.7129  255 255 255
24.1045 72.0196 -76.3441  255 255 255
24.1045 72.0196 -76.3441  255 255 255
-69.5523 53.2968 -19.1497  255 255 255
56.7406 78.1663 -94.1883  255 255 255
-54.7617 55.5602 -28.3898  255 255 255
62.0086 78.9048 -97.4119  255 255 255
52.5795 47.4612 -12.403  255 255 255
-64.7176 52.7854 -21.9553  255 255 255
-76.9388 50.5488 -14.8863  255 255 255
29.2648 71.112 -80.4396  255 255 255
49.1684 48.9735 -19.0188  255 255 255
20.4274 69.2605 -74.8464  255 255 255
55.2641 44.801 -7.19499  255 255 255
-51.09 54.9634 -32.2918  255 255 255
-51.1157 54.9695 -32.3664  255 255 255
20.2945 68.1055 -75.9249  255 255 255
-65.9005 51.8439 -23.3933  255 255 255
-27.1153 58.7643 -47.638  255 255 255
-27.0951 58.7643 -47.6625  255 255 255
51.0168 35.2417 17.1829  255 255 255
49.3208 36.2487 13.5965  255 255 255
27.0276 68.3713 -78.0873  255 255 255
51.4799 34.5768 17.7705  255 255 255
24.753 68.1244 -79.494  255 255 255
-52.8769 52.8454 -32.9786  255 255 255
-52.8649 52.6991 -32.512  255 255 255
-65.0926 50.4702 -25.3557  255 255 255
-50.9997 52.6585 -34.3823  255 255 255
-50.9753 52.6495 -34.4145  255 255 255
-66.0233 49.9621 -24.6044  255 255 255
-39.8579 54.4803 -41.8192  255 255 255
-9.27735 59.128 -60.5081  255 255 255
54.8104 30.2478 24.7243  255 255 255
-53.145 51.1409 -33.9925  255 255 255
66.3904 73.2547 -105.465  255 255 255
-12.6165 58.0346 -59.2615  255 255 255
51.6271 43.3971 -17.0927  255 255 255
52.55 32.0244 17.5596  255 255 255
53.8508 30.8854 20.7198  255 255 255
3.79432 60.8244 -69.6967  255 255 255
67.0074 72.2117 -107.084  255 255 255
-114.971 60.626 -58.6807  255 255 255
-7.36595 57.837 -63.6088  255 255 255
54.9418 30.0316 21.242  255 255 255
-117.862 61.5995 -63.5591  255 255 255
50.628 32.1686 13.2178  255 255 255
-10.1457 56.5184 -62.5758  255 255 255
-10.195 56.2883 -61.6332  255 255 255
-20.7938 54.5094 -57.0303  255 255 255
5.09382 58.3156 -70.4628  255 255 255
57.3967 26.6229 28.8889  255 255 255
-51.8148 49.1681 -37.6688  255 255 255
-16.7715 54.8613 -59.4691  255 255 255
-16.7302 54.867 -59.4899  255 255 255
18.3038 61.1781 -81.0899  255 255 255
48.8504 42.8872 -23.7231  255 255 255
48.947 43.0232 -24.0154  255 255 255
52.3908 30.3363 16.6383  255 255 255
50.6444 41.853 -21.2618  255 255 255
50.6444 41.853 -21.2618  255 255 255
-26.2912 52.5986 -53.5304  255 255 255
-20.228 53.5869 -57.958  255 255 255
57.1735 27.0949 25.4779  255 255 255
-78.5229 43.9106 -20.3269  255 255 255
25.9926 61.3582 -86.4293  255 255 255
-57.4619 47.04 -34.2839  255 255 255
-57.4619 47.04 -34.2839  255 255 255
19.4725 60.1614 -82.5719  255 255 255
-11.1579 54.6052 -63.7839  255 255 255
-25.766 51.8454 -54.8668  255 255 255
-64.6822 45.3882 -29.7584  255 255 255
-37.7367 49.6601 -47.3058  255 255 255
-27.0467 51.3027 -54.1861  255 255 255
-27.0415 51.3211 -54.2119  255 255 255
-27.0318 51.3574 -54.447  255 255 255
-76.1428 42.9305 -21.1058  255 255 255
-25.0822 51.0259 -56.2712  255 255 255
-10.5665 53.3213 -65.1504  255 255 255
-42.7432 47.8617 -44.7405  255 255 255
-76.1405 42.7525 -23.4678  255 255 255
57.4465 25.805 24.6528  255 255 255
48.5413 40.7563 -26.0169  255 255 255
